# .PCD v0.7 - Point Cloud Data file format
VERSION 0.7
FIELDS x y z
SIZE 4 4 4
TYPE F F F
COUNT 1 1 1
WIDTH 1482
HEIGHT 1
VIEWPOINT 0 0 0 1 0 0 0
POINTS 1482
DATA ascii
16.514687 32.807858 -1.8083224
18.452986 36.892174 -1.7993237
21.744896 43.385468 -1.8801985
-37.754002 -56.867256 -1.9744569
-33.852859 -51.875862 -1.7726567
-29.91017 -43.629166 -1.8295937
-29.161633 -43.653812 -1.8144445
-26.057981 -37.290531 -1.8139265
-25.064522 -36.350536 -1.7551492
-24.405703 -35.999996 -1.7263339
-21.778704 -31.453661 -1.7126445
-20.310993 -27.556778 -1.7274383
-18.929625 -24.8855 -1.7262671
-17.780813 -23.975933 -1.6387962
-16.913477 -21.986843 -1.7457732
-16.423279 -20.710411 -1.8663993
-15.513769 -19.36034 -1.9925826
-14.981858 -19.049589 -2.0206234
-14.33851 -17.338089 -2.0037863
-13.292202 -15.549726 -1.9287182
-12.585147 -14.302547 -1.906635
-11.802369 -12.972337 -1.8963726
-11.032987 -11.624214 -1.8993629
-10.37191 -10.45118 -1.9114059
-9.7194986 -9.3447828 -1.9341153
-8.8307915 -7.785316 -1.948907
-7.9923487 -6.4490609 -1.9366727
-7.465394 -5.2705894 -1.9502265
-6.578661 -3.8909135 -1.931887
-5.8034048 -2.6132803 -1.9120284
-5.2444425 -1.4524668 -1.9123398
-4.7006459 0.071796536 -1.9154731
-4.1900368 1.474261 -1.9152737
-3.2656846 2.864944 -1.8896636
-2.1191335 3.8684433 -1.8532853
-1.3547089 5.0292444 -1.8382497
-0.62058592 6.3315673 -1.82143
0.11542678 7.677927 -1.8183073
0.87692618 8.9114828 -1.8151226
1.5907743 10.361294 -1.8248849
2.3898695 11.35506 -1.8259227
3.152874 13.0731 -1.8598489
3.7197392 14.37733 -1.8765119
4.1447992 15.424324 -1.8775138
4.8071032 16.948524 -1.8930593
21.657795 43.720356 -1.8918207
-39.518112 -56.96711 -2.0075123
-38.779762 -57.041779 -1.9964504
-28.501469 -37.741882 -1.8936303
-25.311165 -32.460434 -1.8567109
-24.369524 -32.202946 -1.8180881
-22.205843 -27.338181 -1.7821525
-21.472416 -27.306351 -1.7552018
-20.63525 -24.750662 -1.7843611
-19.687986 -24.701435 -1.7454805
-18.978987 -22.786621 -1.625479
-18.216469 -21.037003 -1.7063657
-17.516188 -20.023458 -1.7778318
-16.941216 -18.705374 -1.9824144
-15.652641 -16.639305 -2.036622
-14.782361 -15.081034 -1.9964349
-14.084032 -13.706831 -1.9852172
-13.132233 -12.394033 -1.9617497
-12.39423 -11.020999 -1.970621
-11.622475 -9.613699 -1.9987786
-10.80706 -8.4285746 -1.9899549
-10.107008 -7.1176958 -1.9543667
-9.3401127 -5.796895 -1.8898715
-8.6062202 -4.5022273 -1.9275385
-7.8984652 -3.0693586 -1.8405459
-7.0971804 -1.893522 -1.9376372
-6.3371248 -0.61110711 -1.9158545
-5.3842239 0.64824414 -1.7673597
-4.7522497 1.8558271 -1.7430267
-4.0861945 3.1901469 -1.8628731
-3.3260899 4.4810147 -1.8539869
-2.5609674 5.9059248 -1.7830495
-1.7369382 6.8970947 -1.6613829
-0.93691564 8.4459782 -1.8349626
-0.3529129 9.7467794 -1.8381182
0.33542442 10.880896 -1.8435587
0.82044888 12.411186 -1.791719
1.8827639 13.666272 -1.857085
2.5853581 15.102418 -1.8615807
3.2607536 16.348188 -1.8035011
4.2535796 17.730938 -1.8225082
4.90519 18.493504 -1.6629158
5.7203646 19.827284 -1.8913716
6.1010275 21.42271 -1.9105141
6.5579376 23.069584 -1.9242423
-34.30109 -45.33316 -1.9801124
-29.411585 -37.451656 -1.9075931
-26.493526 -32.284203 -1.8865665
-24.433609 -27.754204 -1.8802416
-23.462496 -27.238037 -1.7586515
-21.69363 -24.266037 -1.8038229
-21.742908 -23.59565 -1.7749735
-19.452858 -20.206228 -1.7207525
-18.747505 -18.827913 -1.7496765
-17.995348 -18.000242 -1.8587095
-17.878065 -17.228874 -2.0137408
-16.945042 -15.860152 -2.0714264
-16.103188 -14.378151 -2.0444071
-15.140337 -12.71908 -2.0448363
-14.427288 -11.272131 -2.0741169
-13.644701 -10.42459 -2.0725996
-12.841152 -8.9008255 -2.0324194
-12.438591 -7.7513747 -2.008374
-11.24428 -6.3374395 -1.9397787
-10.428373 -5.2742682 -1.8934611
-9.4599056 -4.2449713 -1.9252424
-9.0737152 -2.1545725 -1.8194188
-8.4316406 -1.1599107 -1.9444814
-7.6154523 0.12895608 -1.9274194
-7.1160593 1.0594282 -1.8414394
-6.0651941 2.857785 -1.6845665
-5.4058094 4.0020618 -1.8781044
-4.6650248 5.2446852 -1.8606291
-3.8593493 6.699584 -1.7716851
-3.3075342 7.4520531 -1.5297939
-2.1490128 9.6978397 -1.8620535
-1.6888471 10.455136 -1.8696532
-0.94786882 11.808842 -1.8805735
-0.23112345 13.036623 -1.7231108
0.80860138 14.052445 -1.8340895
1.712626 15.615752 -1.8786541
2.3182611 16.629314 -1.8073941
3.081181 17.906403 -1.8798755
5.0563059 20.796814 -1.5739586
6.3229089 23.140057 -1.9242842
7.0314918 25.030756 -1.8527344
7.5372052 27.352495 -1.9526885
-41.25082 -53.689686 -1.9547939
-36.215652 -45.556515 -2.0314736
-35.02169 -45.09848 -1.9895792
-30.544266 -37.289452 -1.9330271
-28.892593 -32.247105 -1.7147844
-27.777699 -31.603712 -1.9016955
-25.490551 -27.6866 -1.9175415
-23.970455 -25.638268 -1.5790128
-23.257074 -23.821381 -1.8490764
-22.977795 -22.627176 -1.7841129
-20.935364 -19.855223 -1.7753613
-20.067482 -18.53616 -1.7707982
-19.452421 -17.125965 -1.987882
-18.655485 -16.902498 -2.1038921
-18.128082 -14.87442 -2.0940309
-17.343908 -13.560612 -2.088208
-16.435608 -11.997002 -2.1096165
-15.573478 -10.625998 -2.1477613
-15.012041 -9.4339981 -2.1131585
-14.178482 -8.2069149 -2.0303445
-13.436873 -7.0205965 -1.9940188
-12.891102 -6.2519908 -1.9848436
-10.310964 -1.4924412 -1.8375691
-9.7694206 -0.37255144 -1.9471316
-9.1088171 0.93408918 -1.9414648
-8.3461027 1.9308789 -1.75851
-7.4014969 3.5343981 -1.6944671
-6.7136979 4.706553 -1.9011236
-6.0110188 6.0615973 -1.8966714
-5.2544861 7.4483223 -1.7975365
-4.4731379 8.2682476 -1.5492158
-3.3992181 10.474371 -1.8948838
-3.0219321 11.231903 -1.9082237
-2.3459363 12.40699 -1.9119998
-1.6143613 13.68549 -1.7841719
-0.87841606 14.561256 -1.9307907
7.1791792 27.743158 -1.9737788
-41.38953 -53.176323 -1.9436771
-36.933167 -45.076138 -2.0341613
-30.780607 -32.461845 -1.777671
-29.899387 -31.803417 -1.8968887
-26.908287 -26.889912 -1.9397202
-25.504665 -25.670481 -1.6056275
-25.259399 -23.803392 -1.93562
-24.760988 -22.74118 -1.8809259
-24.540003 -22.174828 -2.0645509
-21.742369 -18.642805 -1.9000815
-21.471664 -17.697638 -1.9898444
-20.696482 -16.601551 -2.1395965
-21.013859 -15.567593 -2.1925225
-19.299797 -13.920956 -2.1271615
-18.613005 -12.771025 -2.1455781
-17.743164 -11.34342 -2.1868865
-16.990997 -10.049479 -2.1707959
-16.31275 -8.6492882 -2.080411
-15.428299 -7.6183224 -2.0180111
-14.790409 -7.0082431 -1.9958447
-12.60922 -1.4337006 -1.8797417
-11.773375 -0.83562517 -1.8837216
-11.028894 0.32425261 -1.8772682
-10.324663 1.6386523 -1.8594307
-9.7102842 2.2994642 -1.8525798
-8.6457396 4.6492991 -1.8782856
-7.9395299 5.4389648 -1.9085722
-7.2045846 6.7804918 -1.8912858
-6.5845551 8.0142326 -1.8236206
-6.6465483 9.2395439 -1.8318895
-4.6466923 10.958216 -1.8720596
-4.2169757 12.022585 -1.9132919
-3.5653052 13.453684 -1.9287148
-2.8655539 14.411215 -1.9107106
-2.8127079 15.577209 -1.8794956
-34.748035 -36.407013 -2.0258124
-31.322296 -31.600338 -2.0213861
-27.841692 -26.459793 -1.7091116
-27.579819 -25.56889 -1.9143311
-25.753942 -23.44787 -1.942794
-25.540686 -21.937403 -2.0429177
-25.085812 -20.904392 -1.8547647
-25.327168 -19.974739 -1.6687444
-24.037868 -18.622915 -2.2286062
-22.950489 -17.077118 -2.2480567
-21.58215 -14.945 -2.2013516
-20.548584 -13.123638 -2.1840868
-19.91333 -12.027569 -2.2168908
-19.20261 -10.722345 -2.2286646
-18.07049 -9.3071165 -2.1526217
-17.669464 -8.2511978 -2.08884
-16.649057 -7.6937432 -2.0408561
-14.640802 -1.9562497 -1.5206971
-13.995687 -1.2229042 -1.7120605
-13.099295 -0.11978722 -1.7588937
-12.491322 1.1673102 -1.7187736
-11.714059 2.4479346 -1.7304699
-11.193997 3.7458763 -1.6714697
-10.20029 5.0765052 -1.7416664
-9.3845892 6.2423506 -1.8099693
-8.5372171 7.5741549 -1.8064319
-7.9280934 8.9313116 -1.6996535
-7.3061371 10.238375 -1.6797396
-6.8214273 11.259977 -1.6743535
-5.7823453 12.821053 -1.8067654
-4.9573665 14.206215 -1.8317763
-4.2021804 15.38357 -1.7788186
-3.5710645 16.774094 -1.7643199
-3.0268879 17.852602 -1.6459305
-2.3256435 19.151064 -1.5033529
-33.394474 -31.077097 -2.0766387
-32.082527 -31.392229 -2.0406079
-26.733667 -21.445009 -2.1459978
-26.456352 -19.811111 -2.1233377
-25.6488 -19.47168 -1.8045385
-25.187622 -18.141462 -2.2790234
-23.823376 -16.079126 -2.2592688
-24.322067 -15.348789 -2.2603481
-22.747574 -13.967384 -2.2412801
-21.844437 -12.359797 -2.2538991
-20.958504 -11.22925 -2.2699683
-20.887259 -9.8239651 -2.1973965
-19.441833 -9.1572914 -2.1720507
-14.846012 -0.37623644 -1.6275207
-14.331406 0.064412117 -1.6465725
-13.753051 2.4115362 -1.7436806
-13.080227 3.525671 -1.7669811
-9.7485237 8.8646049 -1.7490335
-8.7818613 9.7575026 -1.5654808
-7.7265482 10.762842 -1.525946
-7.2637472 11.880046 -1.5316613
-5.6515861 15.041133 -1.8022752
-6.0339894 15.745578 -1.7727798
-36.22897 -35.649956 -2.047226
-33.883667 -31.112272 -2.0959823
-28.692133 -20.51792 -2.2139428
-27.482477 -19.22617 -2.2215505
-26.598392 -17.623457 -2.3478951
-26.616394 -17.217508 -2.3313715
-24.9104 -14.733018 -2.275691
-23.967518 -13.176662 -2.3014019
-23.154831 -11.619139 -2.3325362
-22.824596 -10.497493 -2.2557385
-14.425745 4.1810961 -1.9639671
-10.742035 9.3962879 -1.8845252
-7.0737863 16.065224 -1.9433863
-6.9467926 16.299601 -1.8666563
-43.682034 -43.558922 -1.7596711
-42.874508 -42.20607 -1.8681809
-39.095169 -36.467598 -2.1633711
-39.305634 -35.941788 -2.1544101
-32.237015 -23.124969 -2.2399676
-30.499817 -21.099323 -1.8140169
-30.100769 -20.181038 -2.0909672
-28.906351 -18.599274 -2.3203778
-27.429102 -16.070597 -2.3380382
-26.057203 -13.91541 -2.3268087
-25.426966 -12.244733 -2.3809013
-25.456329 -11.163451 -2.3415427
-15.326859 4.7646627 -2.1017618
-15.20939 6.5256867 -2.2839751
-12.254885 10.40839 -1.9753796
-12.42437 10.699954 -1.9680843
-7.7856927 16.925955 -1.8829507
-42.032299 -38.656178 -1.7676519
-41.766777 -37.296879 -1.7604634
-32.429424 -22.899744 -2.2411406
-32.576904 -22.699617 -2.2417462
-31.695499 -20.359287 -2.00471
-31.074451 -19.873182 -2.0543222
-30.423517 -17.989227 -2.3913255
-28.464539 -15.07338 -2.3711798
-27.456306 -13.117119 -2.4026778
-26.198187 -11.925885 -2.4321527
-25.436005 -10.919374 -2.3310471
-15.394831 6.7632813 -2.2656882
-13.372868 10.850756 -2.0812843
-43.184639 -37.725456 -1.7445072
-42.902481 -37.186756 -1.693958
-34.622684 -21.859257 -2.3177397
-33.268559 -20.742538 -1.7856073
-33.200703 -19.827785 -1.9541223
-32.68203 -19.158627 -2.3923109
-31.190344 -17.013744 -2.4047291
-29.825436 -14.250743 -2.4385693
-28.40316 -12.379086 -2.4500694
-15.070909 11.750197 -2.4131062
-35.680218 -21.220032 -2.3527243
-34.820129 -20.562788 -2.2859359
-34.258801 -19.107821 -2.0956056
-32.053349 -16.176762 -2.4316058
-32.624527 -15.636317 -2.4518847
-31.18894 -13.534515 -2.5141215
-16.11684 12.265525 -2.5410712
-44.878006 -32.754997 -1.5611527
-43.821945 -31.776337 -1.5153936
-37.022186 -20.89711 -2.4139402
-36.446934 -19.929802 -1.9162883
-35.722061 -18.0112 -2.5369
-35.633156 -17.256147 -2.5084023
-33.63784 -14.82701 -2.494648
-32.094841 -13.057002 -2.5660474
-18.911715 12.159214 -2.2680521
-18.291039 13.027512 -2.2822008
-38.55761 -19.986273 -2.4188814
-37.346542 -19.521305 -1.6585013
-36.163734 -16.238312 -2.5118823
-34.504608 -14.14263 -2.5333309
-18.949005 12.258462 -2.5363498
-18.487589 13.048213 -2.5740309
-39.425575 -19.315948 -2.1000359
-39.644207 -18.340614 -2.0677936
-36.988251 -15.211983 -2.535887
-20.442215 14.940387 -1.6467727
-40.908699 -18.261002 -2.5538683
-40.041809 -17.85743 -1.9928865
-21.418863 15.448349 -1.8269033
-43.447556 -19.078211 -2.0328231
-42.385422 -17.676605 -2.5466335
-42.571953 -16.922649 -2.6165454
-22.62418 16.115276 -1.8067195
-44.105377 -18.392754 -1.8953531
-43.970741 -17.396938 -2.2175612
-42.71244 -16.74633 -2.6200099
-24.256479 16.86459 -1.8680655
-25.164406 17.370451 -1.95399
-48.913696 -18.981792 -2.2648814
-47.497993 -18.181086 -1.9803559
-27.485573 17.420029 -2.4185381
-26.880968 17.957903 -2.1846268
-28.095736 17.616392 -1.976496
-27.915728 18.425869 -1.9158587
67.833771 -9.2167797 -0.31589755
67.495399 -7.9594021 -0.31147972
67.420143 -7.7353802 -0.31033769
54.014771 -6.6610813 -0.20833726
51.870003 -7.7174873 -0.19438609
50.44648 -7.4954453 -0.76163042
50.524605 -6.1710663 -0.5646199
47.205582 -6.0002956 -0.61428177
44.047409 -4.7120552 -1.4904443
43.695221 -4.533802 -1.4754353
43.923019 -4.4188156 -1.4842654
-4.1194382 -75.253876 -0.6854825
-4.8179379 -72.685837 -1.3305678
-4.391058 -71.421707 -0.58528173
-5.478651 -71.409355 -0.47597107
-5.1569309 -71.015846 -1.2962643
27.454865 -3.9816666 -0.35817459
27.780539 -3.3411064 -0.41081974
26.37952 -3.5582075 -0.55812043
27.014986 -2.9728718 -0.56649524
-12.221983 -66.806763 -1.2241081
25.785158 -3.0577145 -0.6227513
-14.416725 -68.807739 -0.947164
-14.212635 -66.930283 -1.233988
-13.06982 -66.302002 -1.2167026
-17.890495 -70.956818 -1.3333077
-15.575302 -68.067444 -0.34869283
-13.058632 -63.851868 -1.4997135
-22.061386 -75.055229 -1.0154506
-18.543306 -70.72802 -1.3310612
-19.020891 -69.832886 -0.82978439
-15.228115 -65.138199 -1.2014266
-16.639229 -64.719528 -0.3239077
-11.870908 -54.050468 -0.79908544
-11.757939 -53.77919 -0.49633706
-25.812416 -74.908508 -1.4571495
-22.473862 -69.448898 -0.37156537
-20.425266 -66.807121 -0.59148329
-12.285729 -54.103855 -0.59845799
-11.541702 -51.231495 -1.4800286
17.969042 0.73554182 -0.25267792
-25.748854 -72.252907 -0.6348142
-12.398593 -49.854156 -1.4426701
-0.95102024 -29.979839 -0.12835595
-0.55524254 -28.107262 -0.70022941
13.115174 -6.7141442 -0.0013845966
16.293407 0.9852128 -1.488937
17.03005 0.95401096 -0.70500851
-23.632574 -67.266113 -0.69987464
-18.224922 -56.333206 -1.0377684
-17.539165 -55.351067 -0.37237144
-13.617061 -49.44212 -1.4393133
-13.802735 -48.995758 -1.4272923
-0.78335571 -27.606915 -0.28710634
-0.59322453 -26.720324 -0.48036349
0.077362061 -25.190451 -0.53094471
0.66980743 -23.991413 -0.80161279
15.219013 1.2252908 -0.84140861
15.825747 2.0155449 -0.2787005
-27.670732 -70.455299 -0.39090216
-17.422066 -52.670044 -0.81142944
-14.518869 -47.610405 -1.3904943
-2.6404476 -28.064205 -0.019151952
-2.4259586 -27.244005 -0.30636135
-1.7900667 -25.693783 -0.45682412
-0.9263773 -24.735023 -0.63336372
-0.64937115 -23.401009 -0.88884449
14.065468 1.8775234 -0.89175582
14.31372 2.7551289 -0.60261351
-22.256336 -56.555344 -0.64590609
-15.821494 -46.903553 -1.3808323
-15.211178 -45.750648 -1.3398874
-2.6277637 -25.002714 -0.66947573
-2.2605295 -23.135941 -0.40414956
-1.0992966 -22.338387 -0.79387349
-1.3721323 -21.140905 -0.70133311
1.1399598 -16.942884 -0.39496535
1.818881 -15.7785 -0.40430927
2.5502596 -14.450453 -0.4110049
3.2684555 -13.145489 -0.38821116
3.9898024 -11.834238 -0.29367948
4.6645365 -10.478409 -0.57566243
5.4987183 -9.3022957 -0.29221064
6.1818275 -7.7923498 -0.35485452
6.8600221 -6.6550283 -0.41154423
7.6365266 -5.2366323 -0.40516877
8.3577414 -3.962419 -0.40334991
9.0812206 -2.6637659 -0.40529841
9.6269712 -1.6909971 -0.36490169
12.760981 2.608942 -1.0407588
13.221018 3.4589353 -0.65895855
-32.323845 -71.81411 -1.4444506
-30.526608 -68.686035 -1.3696563
-23.220425 -56.637978 -0.65213561
-18.794901 -47.776966 -1.4389231
-16.958979 -47.316219 -1.4054972
-16.289986 -45.905277 -1.3555382
-15.531418 -44.211185 -1.2965723
-15.2239 -41.755253 -0.69268233
-3.1059465 -21.820482 -0.66006649
-1.386703 -20.189373 -0.73936343
-1.567697 -18.987007 -0.68697435
3.5832405 -10.033317 -1.0054575
3.8080428 -8.736536 -1.3843054
5.1528163 -7.6234426 -0.45893863
8.8278971 -1.1358175 -0.57562876
11.472675 3.3739595 -1.0567082
11.887783 4.2332783 -0.76191908
-25.305477 -56.754738 -0.66419643
-24.605482 -56.696098 -0.66010177
-20.437298 -47.6185 -1.4533275
-15.907503 -41.797043 -0.68196213
-16.432426 -40.511711 -1.3382628
-1.9975791 -18.039955 -0.6070931
-1.9503059 -16.709188 -0.95372379
-1.553618 -15.69488 -0.97668415
-0.86598635 -14.137688 -0.8267585
-0.15678358 -12.978912 -0.70301777
0.56582355 -11.609652 -0.63029355
1.3494873 -10.313362 -0.58211637
2.5038486 -9.5008364 -0.79273576
3.3737636 -8.1623459 -1.4121058
3.6099803 -6.3616853 -0.90498549
4.3273039 -5.0761347 -0.95925796
5.101119 -3.7602136 -0.9510631
5.7976136 -2.4978776 -0.9574545
6.5508194 -1.1984686 -0.95208347
7.1499052 -0.50212169 -0.87120128
10.274092 4.1488585 -1.0979303
10.551075 5.1617203 -0.75977308
10.88147 6.7276897 -0.74086964
11.613306 7.9691582 -0.83696878
12.32783 9.2604256 -0.90295988
13.140005 10.602072 -1.0909833
13.546278 11.380868 -1.0546037
14.692072 13.372145 -0.70619726
15.317432 14.452553 -0.76744634
16.068209 15.797091 -0.69334328
16.788511 17.022526 -0.77736455
17.410942 18.147417 -0.57161915
18.238028 19.393064 -0.74740672
19.300583 21.373177 -1.2018682
-34.819935 -70.392242 -1.1663692
-26.009785 -56.805508 -0.9586215
-25.575993 -56.008125 -1.3996655
-24.623049 -52.537018 -1.2467256
-22.713499 -49.584362 -0.39079487
-22.29092 -48.562759 -0.25505424
-21.707237 -47.146442 -1.4556162
-16.552042 -39.755333 -1.1315471
-16.784908 -38.137096 -0.50181729
-15.966558 -37.057991 -0.68155712
-0.56577063 -10.396564 -0.82766986
3.416441 -6.0024529 -1.4979889
3.871521 -4.7421808 -1.488248
3.9251518 -3.1754901 -0.96707278
5.2410784 -1.9314241 -1.4757756
5.8771667 -1.0574389 -1.4804454
10.320349 6.04002 -0.78837466
10.609179 6.8224845 -0.86228001
11.526454 8.1025915 -0.77856886
12.313278 9.3824806 -0.56032652
13.030888 10.646114 -0.48993099
13.705499 11.982865 -0.99941564
14.48958 13.570114 -1.3913906
15.293137 14.774026 -1.1243345
15.945872 15.747169 -0.84385955
16.702192 17.1439 -0.90242839
17.356373 18.255428 -0.94238681
18.307692 19.832848 -0.78468508
18.937304 21.019361 -0.86087197
19.714838 22.374184 -0.82228363
20.493153 23.746672 -0.76943702
21.199327 24.954025 -0.72350001
21.915783 26.353785 -0.90807343
22.658356 27.593281 -0.71692055
23.417006 28.894178 -0.66194719
24.150089 30.175993 -0.50621486
-36.157578 -69.896263 -1.1383959
-23.946583 -48.759857 -0.53870755
-23.498123 -48.399536 -0.61927187
-22.500036 -46.918537 -1.4593049
-16.844675 -38.090721 -0.66729003
-16.580292 -36.339859 -1.2647158
-16.029188 -35.180538 -1.1964298
-1.6909428 -9.9217682 -0.70173395
-1.570503 -9.0560932 -1.3631059
0.57042623 -6.0713549 -0.62927598
1.2459196 -4.8324938 -0.68181831
1.7200707 -3.7850223 -1.0175422
3.0516164 -2.2635903 -1.1471415
3.326529 -1.3802922 -1.2580746
4.0463839 0.16683352 -0.71220338
4.7406707 0.92225742 -1.419371
8.1501389 6.9908752 -0.97936434
8.3839207 8.0058699 -1.1266816
14.242604 17.612978 -1.402723
14.613801 18.682125 -0.82930803
15.369865 19.112354 -1.0667562
16.196005 21.570854 -0.85925871
30.752092 46.987064 -0.39954197
-37.837715 -70.014908 -1.1832421
-37.493286 -69.415352 -1.0815818
-36.50798 -68.889412 -0.40556023
-24.860834 -48.221123 -0.3862229
-24.569914 -48.010323 -0.21692204
-19.336071 -37.429749 -1.4178221
-19.303278 -36.937263 -1.4002662
-17.86607 -36.240505 -1.3516784
-16.746134 -34.253239 -1.2309126
-16.565094 -32.960545 -1.3236332
-0.81097746 -6.5487289 -1.0876269
-0.29454827 -5.8038902 -0.81614959
0.47884154 -4.3897924 -0.94874871
1.0020304 -3.5779006 -1.1197163
1.7124189 -1.5750955 -0.9724468
2.962738 -0.82541817 -1.2712162
3.5771735 0.46634614 -1.3833127
7.4804463 7.4240971 -1.4099497
7.8875313 8.2338047 -1.3472426
8.3659401 9.2039309 -1.444404
13.870576 18.729195 -1.3791348
14.415186 19.801655 -1.3190421
15.524828 21.996592 -0.90031844
15.451158 22.886333 -0.99906015
16.268219 24.3554 -0.87454635
16.697441 25.271297 -0.62743229
21.120619 31.970814 -1.4413993
21.426203 32.757484 -1.4768956
22.762001 35.229904 -1.3511555
23.227484 35.583309 -1.3721299
24.593739 37.671902 -1.129172
24.62599 38.246773 -1.116363
25.730297 40.692207 -1.2704937
29.799717 47.436691 -0.60955882
33.025612 51.426147 -0.20408702
33.136673 53.969219 -1.0430429
-38.685787 -68.492607 -1.0766519
-38.305664 -67.750443 -0.8807615
-28.436764 -51.125675 -0.25197792
-27.633331 -48.16201 -0.22885492
-20.108761 -37.190598 -1.4233494
-18.508699 -34.814564 -1.3137563
-17.417044 -32.269295 -1.4250938
-16.802675 -30.795958 -1.2038095
-16.762518 -29.66946 -1.1168841
0.70223486 -1.2912955 -0.57813621
1.7383082 1.5734135 -0.80421484
-40.598808 -68.891693 -0.93243521
-40.044403 -68.142769 -1.4469459
-39.449028 -65.781128 -0.62858135
-39.403931 -65.357162 -0.62503886
-32.367054 -53.225082 -1.3078696
-27.959047 -48.114483 -0.22923262
-22.549332 -37.854458 -1.4909925
-19.336912 -32.667099 -1.4816698
-17.043417 -29.27293 -1.2010167
-1.6275548 -0.3996321 -0.59829485
14.999439 28.410461 -0.81491375
15.911073 29.21913 -0.74501389
-41.908924 -67.147507 -1.4483938
-40.670422 -65.392433 -1.4035927
-39.574913 -65.450371 -1.3929908
-32.813988 -53.447895 -0.97874141
-30.302031 -49.254951 -0.24605711
-30.381842 -47.85741 -0.2366703
-16.840572 -23.663801 -0.8405323
-16.785925 -23.158615 -1.0602845
14.654188 28.478983 -1.0187602
-23.194059 -33.682053 -0.11244721
-23.215462 -32.296532 -0.16600376
-22.926689 -31.033329 -0.32218641
-22.079857 -29.791872 -0.58022207
-17.389894 -23.586111 -1.0624944
-39.824368 -57.398186 -1.2532961
-39.302013 -56.494926 -0.47152451
-30.208477 -42.794044 -0.36270857
-25.264542 -32.510345 -0.89445591
-25.154537 -32.235527 -0.64756918
-23.603403 -31.250055 -0.098979063
-22.80233 -29.192188 -0.46201125
-23.047468 -28.125399 -0.36976385
-9.4175644 -4.9773407 -0.32225651
-8.9719725 -4.6018567 -0.76598537
-8.0500116 -3.0199783 -1.0464091
-5.7739811 1.3079261 -1.4381329
-5.4872885 1.7051564 -1.4429873
-2.6018953 6.6866803 -1.480168
-2.3081381 7.1935821 -1.4448751
0.68391895 12.667094 -1.1767424
1.40308 14.205164 -1.1823759
1.8572559 14.963717 -1.1517848
3.1531501 16.311352 -1.1534204
3.8131056 17.062372 -1.0618504
4.7801447 18.957125 -1.4415244
5.0390763 20.691397 -1.289013
5.3247762 21.190607 -1.3545697
-39.761166 -56.73502 -1.2407283
-25.998234 -32.555656 -0.87140173
-25.634562 -31.239344 -0.45302343
-23.895452 -28.315159 -0.61323011
-23.660601 -27.093452 -0.78508443
-23.22394 -25.407267 -0.3831948
-17.81811 -18.240839 -0.72311562
-10.821337 -4.1772633 -0.98339427
-10.509367 -4.1863241 -0.95890576
-8.9675503 -2.2135086 -1.0199009
-6.6013632 1.7439793 -1.391382
-6.2990594 2.1288357 -1.4229573
-3.6724794 7.2466722 -1.4586966
-3.1516144 7.6276217 -1.4318169
-0.20249128 12.945343 -1.0487144
0.95309973 14.490635 -0.82348496
1.1356363 15.386806 -0.51348919
2.3470941 16.767309 -0.85526317
2.880837 17.534754 -0.5159477
4.651721 20.805847 -0.91940349
5.1645985 21.369371 -0.94908154
6.6492848 24.892971 -0.94625747
7.113585 26.232128 -0.71034074
-26.849258 -30.964203 -0.11182064
-24.01515 -26.401007 -0.61504912
-23.981426 -25.141579 -0.77560669
-23.367186 -24.475866 -0.52237463
-10.727798 -2.7920249 -0.94849664
-10.152105 -1.5480404 -1.1981066
-8.0634079 2.5601888 -1.3855083
-7.9218597 3.0929427 -0.84628743
-5.1638298 8.0081758 -1.4596236
-4.6820288 8.4698353 -0.70601213
-1.5401778 13.410498 -1.3025377
-0.54968214 14.873498 -0.7294504
0.33402014 15.621591 -0.42887291
1.8507161 19.989119 -0.28311461
5.7711439 25.3939 -0.6194846
6.3349686 26.691328 -0.66319495
7.3384538 30.289461 -0.21085833
7.4883418 30.391199 -0.28364691
-27.614342 -26.897274 -0.32806963
-25.960108 -25.497456 -0.76445651
-24.985907 -24.879019 -1.0286168
-24.749592 -22.731461 -1.2001697
-8.7121315 2.9483185 -1.338534
-5.7306452 8.1198292 -1.4883778
-5.3552094 8.9478569 -1.4198127
1.4178181 21.934017 -0.33998707
3.1111984 24.901966 -0.27911174
7.1750169 30.43622 -0.079728328
-29.227917 -27.254618 -0.10257858
-27.921831 -26.777317 -0.64991987
-24.967651 -22.080563 -1.3344022
-25.185614 -20.97607 -1.1999753
-25.326439 -19.957836 -1.4070764
-17.869099 -7.1019149 -1.3007877
-17.34116 -6.498982 -1.1070546
-16.282814 -5.1215076 -0.84528571
-15.619825 -3.9359822 -0.82931566
-14.643129 -2.5134139 -0.6542713
-14.214378 -1.4242535 -0.75820798
-13.124055 0.44831038 -0.70099461
-12.638942 1.2551885 -0.74594891
-11.912232 2.5550888 -0.73575854
-11.225091 3.7636316 -0.73029828
-10.411414 5.1539974 -0.73697275
-9.7279387 6.1653118 -0.8872332
-8.7675896 7.9573774 -0.91723746
-8.2577438 8.9854736 -0.77241641
-7.5688133 10.362329 -1.0685359
-7.0131664 11.379074 -1.0427796
-6.1271343 12.726582 -0.88838089
-5.0490642 14.533737 -1.2145548
-4.4548359 15.513601 -0.73655707
-3.6902418 16.815685 -0.76064688
-2.9584856 18.120377 -0.76047641
-2.2279754 19.408703 -0.75176221
-1.5177374 20.731035 -0.55850005
-0.78098679 22.031685 -0.49965659
-0.029719353 23.401108 -0.40114084
0.68395042 24.703308 -0.32491395
1.3972445 25.907982 -0.35637593
1.927516 26.907524 -0.33848757
3.5196781 29.96579 -0.71443331
5.2584305 32.787109 -0.49967155
7.0481815 36.026993 -0.61471987
8.4370956 38.513599 -0.45087871
11.734359 44.201023 -0.21029013
12.301267 45.042065 -0.21883687
-32.583488 -31.834856 -0.42499301
-26.01667 -19.935696 -0.87452692
-25.697426 -19.467232 -1.2238134
-19.914516 -7.5842462 -0.99300504
-19.287754 -7.132051 -0.55633634
-17.423841 -5.7695842 -0.26695004
-17.102156 -4.6861973 -0.37077168
-16.624722 -3.9392862 -0.32446465
-14.934616 -0.40342093 -0.73492312
-14.259579 0.13526201 -0.80210626
-9.5217171 8.6269236 -0.63943744
-8.6250877 9.5560026 -0.66374749
-8.05896 10.718074 -0.55812979
-7.5433111 11.858601 -0.56626219
-6.5431528 13.132037 -0.68341726
-5.9083834 15.267231 -0.67118382
-5.6377263 15.611174 -0.61110765
3.4862528 30.179386 -0.53534925
4.2195778 31.449045 -0.2860733
4.7407293 32.924988 -0.43932509
6.5350132 36.263603 -0.58160657
7.9351177 38.201519 -0.60548866
8.1559267 38.709496 -1.0001976
9.6087122 42.944557 -0.46641448
10.083708 42.952377 -0.55529171
11.73993 44.45953 -0.49711454
12.555417 45.846558 -0.42214131
13.194517 46.966423 -0.41982666
13.899903 48.293385 -0.56279647
14.221951 49.003067 -0.25874439
-33.562538 -30.081964 -0.32623902
-32.501568 -27.600039 -0.38155416
-31.208197 -25.804981 -0.37170845
-20.543755 -7.5848432 -0.57275021
-19.906845 -6.8303771 -0.69021314
-19.530203 -4.3225193 -0.56027931
-19.259186 -4.0984817 -0.79876518
-11.168956 9.7260046 -0.99434084
-11.364217 10.164906 -0.66965753
-9.3388996 11.949703 -0.45032135
-8.8851719 12.646923 -0.37807456
-8.6434927 13.828803 -0.78674227
-7.0172706 16.056704 -0.86893982
-6.9613819 16.334057 -0.75557303
-42.706062 -41.717415 -1.3417796
-41.604591 -40.968906 -0.24505885
-34.548115 -29.652893 -0.84610951
-34.055531 -27.856564 -0.13308397
-33.54092 -26.736574 -0.35856599
-31.950367 -24.775747 -0.43145162
-31.207386 -21.870682 -1.2549298
-30.65213 -21.167858 -1.2752744
-30.704735 -20.313225 -1.4234624
-21.311892 -6.6371579 -0.90868592
-19.991697 -4.2165341 -0.71718144
-19.731518 -4.030488 -0.91188639
-12.495783 10.300295 -0.68361282
-11.961598 10.581745 -0.79306298
-10.650757 11.745911 -0.90468818
-8.1874218 17.153065 -0.41204822
-43.666191 -40.851692 -0.93296164
-43.362396 -40.037529 -0.99436986
-42.070755 -38.773773 -0.99665231
-42.004295 -37.649078 -1.0532769
-34.099277 -25.851337 -0.46902269
-34.367737 -24.126705 -0.11664987
-33.199295 -22.86017 -0.88433319
-33.124504 -21.996624 -0.74046147
-31.539928 -20.318539 -1.2668149
-30.893387 -20.108109 -1.3817918
-22.184673 -4.6897135 -0.33836961
-22.019386 -4.5600271 -0.302957
-13.400299 10.646715 -0.62457448
-12.85801 11.234656 -0.89244062
-11.846256 15.17248 -0.89680111
-42.493515 -36.707966 -0.84781873
-42.544147 -35.951077 -1.2366934
-41.770737 -33.496525 -0.90619254
-41.259018 -32.710724 -0.52227795
-37.596336 -28.017733 -0.59127384
-34.741425 -23.515133 -0.77148879
-34.385712 -22.174065 -0.82804352
-33.330875 -20.939426 -0.87282228
-33.425503 -20.099375 -0.96192849
-14.883138 11.59604 -1.0098985
-12.103226 15.049818 -1.0095659
-11.757146 16.030773 -1.046549
-41.942921 -33.077965 -0.77976418
-41.848747 -32.332127 -0.50595659
-34.790024 -19.898188 -0.90281343
-34.233902 -19.762154 -1.0412695
-16.139135 12.153156 -1.1789548
-16.080811 12.76764 -0.71801686
-44.567848 -32.605492 -0.86394966
-43.92849 -31.370049 -0.97299308
-41.363228 -27.498684 -0.1747974
-40.609665 -25.736473 -0.16264686
-36.410908 -20.568474 -1.3968121
-36.551941 -19.986134 -1.3159264
-28.220909 -5.7382345 -0.013598087
-18.772409 12.33496 -1.4399024
-18.027412 13.156646 -1.1968483
-13.044038 19.466476 -1.2686721
-45.507996 -32.968769 -0.3546021
-45.023445 -31.884026 -0.82309306
-44.588959 -30.701159 -0.48064205
-42.41053 -27.751604 -1.1045021
-41.985077 -27.189606 -0.48247799
-41.363197 -25.28603 -0.33053517
-41.38266 -24.38575 -0.16191952
-18.559935 13.8598 -0.84949273
-42.856091 -24.736034 -0.42058015
-42.183544 -23.481144 -0.32284695
-39.846703 -19.424759 -1.2023615
-39.734272 -18.58276 -1.4743154
-20.080086 14.742095 -1.0225297
-44.45372 -24.789703 -1.0059252
-44.210461 -24.097555 -0.72481728
-43.134628 -23.202078 -0.26969203
-40.37574 -18.345497 -1.4926374
-40.086605 -18.366531 -1.4827158
-21.319683 15.444152 -1.1147712
-45.949257 -24.270105 -0.8344999
-45.360291 -22.921207 -0.71778083
-45.173233 -22.179943 -0.59434807
-43.655098 -19.986729 -1.0474474
-43.810112 -19.471016 -1.0464369
-22.60708 16.18227 -1.1699697
-46.647331 -23.371553 -0.19304934
-46.142944 -22.285202 -0.98690581
-45.954384 -21.340544 -0.60480297
-44.161701 -18.385647 -1.0343161
-44.430069 -17.549067 -1.0435579
-23.960922 16.939297 -1.1838992
-47.287106 -20.350227 -0.34511194
-46.7696 -18.773968 -0.33344257
-25.23271 17.644726 -1.1691412
-48.566082 -20.659676 -0.39147347
-48.203491 -19.772861 -0.35056582
-47.540508 -18.310339 -0.75194377
-46.867851 -17.583235 -0.94542527
-26.517323 18.402018 -1.2749555
-26.594957 18.990957 -0.72677517
-28.100555 17.655132 -0.75143224
-27.894552 18.541498 -0.79293638
-27.096313 19.289694 -0.7676158
-33.133743 25.749542 -0.30331236
-32.483452 26.082506 -0.79657304
-35.404209 25.212164 -0.53314215
-34.325985 25.460016 -0.62731606
-35.917339 24.993298 -0.62620515
-36.492702 26.434092 -1.2452582
56.160931 -6.4341698 1.0826036
54.793438 -5.9043179 1.4785141
51.148544 -7.4750061 1.0070351
52.074276 -6.5774269 1.0014312
50.463436 -6.7423706 0.14133115
51.146481 -6.3347473 0.92675614
51.741871 -5.3982944 1.4078017
-3.9897823 -75.575623 0.080841273
-4.3628654 -71.892883 0.087401956
-14.549316 -77.298035 0.30078971
27.214214 -4.057292 0.46701765
27.618729 -3.2113266 0.9797911
-15.166229 -76.881798 0.44903967
26.515356 -3.6083202 0.61438894
27.124392 -3.1016607 0.47789672
-14.325754 -70.173981 0.31529787
-13.446707 -69.648132 1.1614177
-16.752844 -72.803322 0.43807819
-15.984823 -70.480782 0.43112835
-14.784935 -69.88118 0.17581668
-14.468632 -68.669563 0.90151364
-14.578266 -67.405815 1.2530687
-17.076441 -70.648293 0.432464
-17.377182 -69.293587 0.92573959
-15.720257 -67.85524 0.27518216
-15.273335 -67.008812 0.89834595
-22.988976 -76.582199 0.08066117
-18.820286 -69.553131 0.47918534
-18.204226 -68.810745 0.42841044
-17.022732 -67.128136 0.67219079
-16.318512 -66.296867 0.4771142
-16.604553 -64.848755 0.73473054
-20.868851 -70.587624 0.43673736
-19.361113 -69.489273 0.43137455
-19.16209 -67.203789 0.9118591
-18.70171 -66.592903 0.63459724
-11.792852 -54.033318 1.0168915
-11.76945 -53.630165 1.0399358
4.4463091 -26.97089 0.82778656
-24.891798 -74.756935 0.59180427
-21.165873 -68.182732 1.2918237
-20.473972 -66.837929 0.52533156
-19.556099 -66.490997 0.90550238
-12.255272 -53.627159 1.0697604
-12.078185 -53.566254 1.2482941
-0.85791111 -32.044464 1.2908645
18.003004 0.70297098 0.43499559
-26.967896 -74.900536 0.45725113
-25.942326 -72.542076 1.3792138
-22.777878 -67.003197 1.2833661
-1.3356485 -30.944235 1.0686288
-1.0930777 -29.700893 0.50641108
-0.33618069 -27.661242 0.712102
13.133106 -6.7592721 0.33270893
14.063013 -5.0666056 0.65380794
17.236336 1.1589789 0.5402782
-25.503368 -70.615913 1.3493215
-23.599915 -66.869705 0.80089474
-18.003304 -56.1502 0.95268041
-17.501486 -55.360435 0.66628116
-1.6663961 -29.794598 0.50586051
-0.55247307 -27.670586 0.60474688
-0.27834606 -26.435165 0.60972315
0.3404932 -25.151237 0.52971613
0.94390011 -24.70599 0.4712956
15.24461 1.2022815 0.25134447
15.907692 2.1028614 0.44826248
-17.503582 -52.701359 0.76226348
-2.6254988 -28.078938 0.22667521
-2.2689409 -26.813835 0.87689722
-1.8993759 -25.50808 0.48481855
-1.455759 -24.745823 0.4338285
2.8470163 -18.179359 0.54983306
4.2885628 -14.293985 0.6265505
14.276443 1.6768579 0.23928447
14.408242 2.7529078 0.35971075
-21.127438 -57.382793 1.1375895
-21.011166 -55.477921 0.80680621
-19.882778 -52.979309 1.0684186
-19.693428 -52.529324 1.4857469
-2.822875 -24.821749 0.58605367
-2.1353273 -23.64555 0.41055182
-2.2276697 -22.504494 0.59834802
1.1101389 -16.948404 0.42617163
1.8707657 -15.976702 0.41668943
2.6493506 -14.400541 0.35511184
3.2746763 -13.203593 0.33602855
4.0172887 -11.742912 0.30122277
4.7031403 -10.402418 0.32219204
5.489994 -9.2575111 0.31401277
6.1587987 -7.7730017 0.31191519
6.871254 -6.6551933 0.27669147
7.6055784 -5.2188673 0.27076089
8.5210648 -4.0628357 0.2736792
9.1947269 -2.7069712 0.27369586
9.6097403 -1.6472986 0.27537122
13.225266 3.4347501 0.34894952
-20.809036 -52.836853 0.73723638
-20.158377 -52.081753 1.4802189
-20.206528 -50.077488 0.5807572
-19.423014 -49.176369 1.1719062
-15.239765 -41.744095 0.24182458
-3.0194798 -21.753645 0.36477602
4.3840499 -10.368295 0.24083304
5.6470141 -8.1378212 0.25649509
11.922569 4.1909542 0.34006029
-30.816608 -66.66111 0.094724588
-20.605343 -49.302315 0.66608554
-20.046585 -48.932774 1.3127319
-15.981218 -41.769955 0.24219649
10.541756 5.0998278 0.33418959
10.807714 6.6243477 0.31355509
11.897284 7.9875112 0.48700103
12.244258 9.1854897 0.29014009
13.318762 10.690132 0.48083431
13.821659 11.367719 0.56152844
14.684618 13.332755 0.29778528
15.465969 14.493155 0.56476432
16.181196 15.460168 0.45453042
16.92305 17.147285 0.89230287
18.218748 19.380926 0.43938464
19.301311 21.281107 1.1095251
19.623428 21.894323 1.0158246
20.9326 24.13842 0.93398303
21.325731 24.826452 0.65668821
23.083647 27.933947 1.029774
-32.474049 -67.401649 0.26921025
-24.910326 -53.213753 0.116483
-25.216661 -52.954716 0.39362696
-22.815411 -49.628452 0.7847349
-22.273327 -49.065636 0.76933497
-22.044424 -47.837666 0.37420809
-16.677994 -40.116589 0.13937649
-16.787983 -38.162407 0.14268038
-15.980797 -37.12571 0.6902262
3.5736754 -2.8638649 0.19106677
10.226704 5.7809815 0.31380638
10.797909 6.7510638 0.25230017
11.63064 8.2094479 0.26215217
12.276906 9.3304892 0.37705824
13.013629 10.610899 0.14423341
13.524776 11.561071 0.57621568
14.648548 13.398501 0.34292406
15.433105 14.767401 0.48537418
15.98357 15.770073 0.53074265
16.810575 17.184959 0.46091247
17.414427 18.285236 0.62168938
18.288307 19.830692 0.57173043
19.003994 21.075054 0.39693764
19.704447 22.38974 0.63642764
20.559864 23.840403 0.19184214
21.275784 25.077448 0.80132037
21.86351 26.14168 0.73970151
22.895403 27.85149 0.80557305
23.374836 28.855928 0.81543189
24.340723 30.364498 0.59954238
24.834938 31.266058 0.97242469
28.552006 37.83041 0.74553907
29.185026 39.051945 0.71935493
30.748594 41.678593 0.90738463
31.24354 42.806969 0.93978071
32.043308 44.304115 0.88538271
32.787674 45.705502 0.70982265
33.67001 47.329731 0.90220171
35.053631 49.453251 0.88303816
-37.026413 -70.565086 1.4233924
-34.520847 -68.016792 0.44985282
-24.288132 -49.149521 0.86976582
-23.250566 -47.78117 0.90605396
-22.642792 -47.199791 0.59130687
-16.855072 -37.994808 0.33872667
-1.7547262 -9.9472818 0.39480859
3.5197358 -2.8261013 0.19349802
3.9944839 0.066801071 0.17811035
8.1785107 7.1859741 0.29561928
8.2718544 7.4262776 0.47815159
14.610273 18.865005 0.43771899
14.877042 19.316929 0.99782467
16.269499 21.851278 0.19498312
22.347813 31.982548 1.2233973
22.449347 32.502502 0.71698141
23.023718 33.538944 1.3618987
25.798674 36.685898 0.67943484
33.361015 51.383366 0.73643941
-25.288265 -48.243866 0.78096747
-24.848322 -47.360725 0.50084513
14.351712 19.03705 0.73980469
14.502805 19.509228 1.0462995
15.318469 22.308622 0.025307525
15.828658 22.443745 0.15175132
22.315933 33.005966 0.8674221
32.769314 51.28788 0.65226239
-28.830524 -51.537796 0.11810525
-26.574284 -47.502789 0.9749012
-26.057121 -46.585468 0.59327841
-32.121704 -53.03804 0.11406896
-29.814138 -49.211857 0.80927545
-28.856005 -48.285503 0.6845625
-27.732843 -47.139938 0.68014479
-26.981211 -46.424442 0.56590271
-40.222012 -65.17762 0.51094407
-34.719296 -54.810101 1.0327482
-32.242657 -52.81974 0.40614203
-30.662113 -48.802277 0.89486021
-30.171103 -48.000809 0.2887353
-16.875015 -23.431284 0.57891053
-35.752281 -54.767216 0.56242859
-35.790508 -53.22105 0.41434607
-31.991241 -47.967319 0.9988721
-32.005043 -47.242565 0.78848863
-30.693621 -44.642437 1.0357121
-29.898907 -43.828831 1.150542
-29.512922 -42.740013 1.2058394
-23.125479 -32.591267 0.46130845
-22.455921 -30.718651 0.85999089
-22.034176 -30.02375 0.92569846
-21.553213 -28.831532 1.1360636
-36.187035 -53.08886 0.41450444
-30.688381 -43.894878 1.0268117
-29.887846 -42.477642 1.1982213
-23.653637 -31.874454 0.61195576
-23.418884 -30.494059 0.4106276
-22.772377 -29.078003 0.50156271
-22.324421 -27.74366 0.81909102
-21.485256 -26.961826 1.0346251
-21.003696 -25.072475 1.2587812
-17.886219 -19.238144 0.93258935
-17.756918 -18.945713 1.0235809
-9.18396 -4.7992363 0.44472489
-27.631577 -33.145679 1.3981696
-26.069103 -31.162329 0.36338618
-25.07843 -29.657505 0.75195235
-24.505402 -28.718864 0.36877209
-23.116104 -27.498833 0.65758997
-22.936779 -25.537586 0.6176393
-22.384804 -24.659313 0.99492216
-17.841921 -18.322098 0.73071396
-9.6438923 -4.5705767 0.54310846
2.5065885 18.838774 0.64020425
-30.830936 -37.30822 0.36473626
-29.576559 -33.402206 1.4388041
-28.876543 -33.19693 0.50709057
-27.280981 -31.557106 0.98758531
-26.811172 -31.055418 0.76982141
-25.532782 -28.90192 1.0907394
-25.090147 -26.454901 0.3488903
-23.904903 -25.206722 0.34527317
-22.906799 -24.174746 0.82160443
-7.9626489 3.0264316 0.26097405
-5.3481846 8.2693481 0.42198247
-4.8428869 8.5398903 0.3187657
2.1083112 19.297935 0.50334692
2.0433192 20.153011 0.35962787
7.3501711 30.057232 0.65470415
7.722116 30.210575 1.0532167
-31.79628 -36.303375 0.94719714
-29.893593 -33.494534 1.4469007
-29.340099 -32.617241 1.4188219
-29.466789 -30.938681 0.34707126
-27.159927 -26.900444 0.89177912
-25.428276 -25.638119 0.21168415
1.4009485 21.950096 0.4680745
3.109273 24.888802 0.56543607
6.9180064 30.228582 0.84961051
7.1274004 30.599884 1.2491678
-32.443054 -34.063087 0.14069512
-32.489536 -32.509293 0.21423014
-31.260704 -31.243874 0.73463589
-29.997965 -29.325146 1.3664401
-28.971317 -27.440588 0.80784899
-28.087234 -26.585278 0.80728805
-28.147305 -25.082844 1.4883069
-25.23912 -21.948971 1.3441988
-25.76862 -20.851288 1.2379777
-16.821381 -5.2200756 0.071804643
-14.670069 -2.5447602 0.37292787
-14.226051 -1.4380875 0.36085799
-13.218977 0.36128235 0.40100482
-12.637055 1.2501278 0.33557519
-11.934419 2.5665965 0.32926652
-11.244996 3.7924974 0.32690936
-10.420605 5.1526322 0.32344133
-9.8732529 5.8099957 0.31550577
-8.6359272 8.0755215 0.33790159
-8.1469669 8.9129114 0.34336051
-7.6297626 9.9784546 0.28470474
-6.9805565 11.661512 0.4563534
-4.4914279 15.532925 0.40635177
-3.839076 16.764809 0.43760276
-3.0281935 18.136898 0.43232253
-2.2742925 19.383995 0.4455792
-1.4239473 21.08477 0.40688729
-0.75716114 22.087128 0.47154003
-0.16221428 23.322916 0.6624344
0.67120838 24.915136 0.68947679
1.3875751 25.922171 0.58395129
2.1509113 27.308384 0.6730774
2.6096516 28.133057 0.89274055
3.5683727 29.821102 1.206157
4.5679884 31.557598 1.0547965
5.2030554 32.690712 0.74280298
7.2355747 36.388939 0.37097669
7.9662123 37.691013 0.40176731
8.4718628 38.42498 0.28777066
10.612237 42.336338 0.29620847
11.088551 43.070381 0.2974278
11.719606 44.194031 0.4637306
12.680029 45.920727 0.30300841
13.342545 47.033527 0.39237419
-32.744175 -32.414665 0.33639279
-33.178879 -30.633001 0.14434007
-31.670338 -29.461195 1.1989763
-30.96718 -28.104153 0.88909578
-30.392042 -26.744114 1.1361881
-29.297594 -25.177849 1.1051672
-28.944942 -24.73041 1.080601
-27.543476 -21.122005 1.0525798
-26.419821 -20.365807 1.1659764
-21.24692 -10.378448 0.75033778
-19.898792 -7.9265547 0.57661337
-19.580456 -7.3129735 0.49653521
-17.467085 -5.6181045 0.18231717
-17.145842 -4.6034021 0.27000582
-16.666477 -4.1690049 0.16102977
-14.840836 -0.44431973 0.33092746
-14.361548 0.13048935 0.38899848
-9.557086 8.3809013 0.33431941
-8.4600611 9.6637087 0.25380954
-8.1091042 10.439404 0.20489164
-7.5915456 11.914028 0.2806952
-7.7228603 13.263237 0.21979026
-6.0606232 15.507206 0.39049065
-5.6357684 15.595169 0.42133829
-3.7912726 17.539398 0.42781392
-3.6045036 17.893658 0.38634145
-1.8037357 20.973232 0.58251899
0.05405426 24.108683 0.55654711
0.42770195 25.007771 0.36683527
0.5210247 26.056892 0.37246656
4.7565603 33.129711 0.39297608
6.5518742 36.260681 0.30431592
7.889637 38.256973 0.10179657
8.3843575 38.593582 0.10069755
10.01349 42.669018 0.57446206
10.112703 42.92963 0.75657588
11.62017 44.192574 0.81937516
12.396414 45.713383 0.84063959
13.126227 46.894974 0.73520333
13.972469 48.533813 0.84458441
14.182997 49.06353 0.5415948
-37.762035 -35.552509 1.0042934
-37.103622 -35.170013 1.3801197
-33.776886 -30.905165 0.89770555
-33.773434 -30.169903 0.50911111
-32.156151 -28.678074 0.34922075
-32.042118 -27.269339 0.56903797
-31.345432 -25.964563 0.47267652
-30.537035 -25.03899 0.77132761
-29.63735 -24.109987 1.2042173
-29.065273 -22.008535 0.85690087
-28.174917 -20.545483 0.97838533
-27.79055 -19.687265 1.232278
-24.688192 -13.622042 1.0101827
-24.482113 -13.418379 1.1571337
-23.236506 -10.344763 0.91187346
-20.489954 -7.6502833 0.039143182
-19.833248 -6.5454726 0.54941934
-20.050222 -5.5165935 0.81227463
-18.09009 -3.9448323 0.23184529
-11.098004 9.2595062 0.51400536
-9.3268223 12.218782 0.25032765
-8.8935738 12.670368 0.41364294
-7.9330416 13.490061 0.42103389
-7.2101564 16.039753 0.34322399
-6.8765655 16.267288 0.44009823
-0.020274162 27.285316 0.34728125
8.6743927 43.548973 1.145835
-37.721313 -34.742767 0.7333712
-37.089821 -33.947353 0.72325277
-35.75518 -30.826141 0.93315655
-34.252789 -27.534796 0.14634329
-33.684052 -26.735315 0.32290679
-32.109665 -25.257111 0.19930303
-31.93244 -24.772354 0.59820974
-29.879837 -21.23214 0.67771798
-25.408119 -13.769386 1.1903796
-25.886215 -11.984483 0.44110787
-25.014267 -11.364838 1.1423371
-23.296772 -9.9885435 0.98673719
-21.188124 -5.1205487 0.71143419
-20.709591 -5.0178528 0.77228421
-12.623926 10.294367 0.33947071
-12.431756 10.770263 0.57153577
-9.8648586 13.141159 0.22158284
-8.2012691 16.561485 0.13724285
-8.1441679 17.037868 0.47521147
7.6608524 44.065361 0.84535646
7.7439566 44.086216 1.166047
-43.017403 -39.748524 0.40104944
-42.484417 -39.195549 0.3984364
-41.990734 -36.858322 0.12953207
-37.67025 -31.935276 0.13865705
-37.316372 -28.763824 0.93285698
-37.065262 -28.390171 1.102313
-34.220451 -25.612608 0.41042897
-34.101669 -24.366472 0.299896
-28.164965 -13.457045 0.82415092
-27.578629 -12.550245 0.77982432
-26.267342 -11.967987 0.58206451
-25.272263 -10.358598 1.1374099
-13.328594 10.389811 0.44628412
-13.251954 11.161536 0.48560575
-11.925248 15.278692 0.40844122
-42.646355 -36.861271 0.26199394
-39.34071 -31.018776 1.1677798
-38.19767 -29.98941 0.14001821
-37.916759 -29.516727 0.5327245
-37.565346 -28.024961 0.39680159
-37.634888 -26.282917 0.67917025
-36.184456 -24.524971 1.2995831
-36.067001 -23.909801 1.3372129
-28.97587 -13.158909 1.0732844
-27.937393 -11.935072 0.57316828
-27.739597 -11.496609 0.89833105
-12.157333 15.27351 0.58544946
-11.922286 15.786722 0.58192337
-10.744957 18.504707 0.74603534
-42.316483 -32.881416 0.64137203
-41.736595 -32.120171 0.46309471
-38.511761 -26.495998 0.75281942
-37.986427 -26.004229 0.91429877
-37.588932 -23.904858 1.0379039
-36.504524 -23.606934 1.1905773
-30.245323 -13.256909 0.96671367
-42.013786 -27.774176 0.13937737
-41.524391 -27.375134 0.39605999
-39.927231 -25.694611 0.53890288
-38.055183 -23.59289 0.89749116
-45.586235 -33.311462 0.13001764
-44.90184 -30.614618 0.29703099
-44.071606 -29.445194 0.36253715
-42.958458 -27.181633 0.73070061
-42.238468 -26.957674 0.47135219
-41.378597 -25.116011 0.61010975
-40.997673 -24.394701 0.8876341
-30.027546 -6.1897078 0.16637096
-51.944672 -40.786522 1.2243156
-45.872612 -31.259811 0.13227484
-45.399567 -30.171457 0.7688821
-43.236557 -25.995968 0.65960741
-42.529369 -24.512892 0.77082443
-42.481468 -23.62854 0.61899143
-32.610527 -6.882659 1.2262455
-44.437893 -25.104473 0.72325504
-43.694603 -23.853497 0.52630347
-43.436558 -23.078117 0.75537258
-35.050049 -7.6224661 0.77849001
-34.216751 -7.1646996 0.90562463
-53.775238 -37.396843 1.216185
-53.138474 -35.61335 1.1931331
-47.239037 -26.646503 0.13497867
-47.249596 -25.112701 0.1360534
-46.083546 -24.309597 0.13775866
-45.473595 -22.73098 0.40697899
-45.143402 -21.925526 0.19907951
-36.350121 -7.4974394 0.57398474
-54.149452 -34.473892 1.1965189
-47.461834 -24.027111 0.21915452
-45.991074 -22.183224 0.13930532
-45.862911 -21.169001 0.28249282
-45.910889 -20.218061 0.37682259
-47.823441 -21.32881 0.48365331
-47.321747 -20.559177 0.4531951
-46.294506 -19.140686 0.35893267
-45.834835 -18.411432 0.37431213
-19.617727 28.585846 1.3744678
-19.430246 28.649975 1.3728099
-48.769859 -20.848026 0.13657923
-19.560707 29.243097 1.3913914
-28.096498 17.660398 0.3927277
-27.90764 18.532902 0.4306035
-59.134254 -29.43639 1.2272109
-59.985878 -28.306807 0.43147808
-59.70752 -26.725317 0.82293504
-59.44886 -26.184835 1.2103739
-32.223667 24.433184 0.23393942
-31.816509 25.70195 0.13742141
-35.621658 22.254545 1.3630728
-35.425335 22.39534 1.2614182
-33.667572 24.084415 0.41490847
-33.034195 24.673555 0.18784074
-32.480423 26.600504 0.53007001
-35.735397 22.233747 1.1671246
-35.638096 23.299143 1.2848327
-35.492023 25.086622 0.8915084
-34.34919 25.467022 0.8442862
-35.989998 24.971024 1.1479573
56.247902 -7.7202435 1.7826731
56.017284 -7.7779369 1.7765481
51.902512 -7.7993813 1.9960662
52.183376 -6.5023346 1.7506279
52.858257 -5.4937782 2.0206311
-10.538675 -79.152466 2.3968074
-9.6214294 -79.276131 2.9040148
-13.117146 -78.215248 2.3832211
-11.216139 -74.136627 2.3587472
-13.728769 -75.011185 1.9408215
-11.858335 -74.094208 2.4557517
-14.00865 -70.406479 2.3596997
-13.500307 -68.939743 2.1915252
-14.011715 -68.605286 1.7993985
-14.09972 -67.558838 2.2893233
-15.20442 -67.636818 2.1102421
-15.290073 -66.570045 2.0824082
-19.192953 -70.175781 2.667228
-18.542519 -68.640961 2.6112123
-16.940119 -66.933243 1.8862368
-16.566402 -65.863754 2.2230191
-16.508572 -64.816109 2.0440366
-22.561714 -72.546547 2.776052
-21.458588 -71.36335 2.7268343
-21.427851 -70.124313 2.221988
-20.607851 -68.923676 2.6398692
-19.213209 -67.515984 2.2849181
-18.274124 -66.522247 1.7774006
-17.625757 -65.298935 2.1725948
-16.710049 -64.756241 2.0441108
-11.801999 -53.891193 1.9555794
-11.552681 -53.857437 2.0693364
-21.213543 -68.649239 2.1811113
-20.316593 -67.124573 1.9267592
-19.731596 -65.93087 2.1534693
-12.427539 -53.842964 2.0256934
-24.368816 -71.062988 2.2723691
-20.557928 -65.223892 2.3043437
-14.631617 -52.49889 2.0500245
-23.971836 -67.111 2.3559301
-22.904657 -65.26548 2.2837431
-22.500774 -64.541283 2.3767676
-21.638657 -63.532974 2.4779394
-17.534061 -55.279243 1.6646364
-14.861471 -52.261314 1.8726327
-14.860311 -51.291065 2.0135098
-23.325737 -63.781151 2.1512029
-17.398407 -52.872658 1.9142106
-16.904192 -51.857662 1.9368768
-21.610535 -58.012428 2.3023388
-21.30636 -56.54911 2.061764
-20.064404 -53.088028 1.6338003
-20.651321 -52.563061 2.1189327
-20.283394 -52.170879 1.746667
-19.79351 -49.377991 1.670208
-26.363655 -58.691998 1.9772447
-24.203648 -54.745506 2.2340236
-21.694429 -50.341961 2.0637424
-20.910042 -49.580212 1.8688065
-19.930641 -49.047787 1.6638007
-24.555319 -53.85828 1.5572691
-24.295166 -52.757919 1.8058281
-23.312761 -51.262119 1.7566864
-22.386744 -49.12114 1.8924867
23.689682 29.472702 1.5167356
24.954231 31.536362 1.6009729
29.273323 39.207767 1.5975605
29.956747 40.591755 1.9583588
30.784191 41.965691 1.7958449
31.365685 43.143093 1.8922079
32.122871 44.469196 1.8536545
32.762825 45.800652 1.7656806
33.750015 47.536621 1.8967994
35.275787 50.121143 1.6638817
-36.19558 -71.091446 2.403024
-36.542313 -69.478691 1.9993705
-23.956583 -49.305759 1.8607658
-23.723431 -48.381168 1.9187273
22.129992 31.92243 1.553776
22.421497 32.285774 1.569774
23.085831 33.794025 1.6267158
33.614353 51.306431 1.9855736
33.813843 52.19949 2.0123456
-37.564285 -70.199097 2.3996346
-29.173531 -56.249271 1.8525769
